# 3D point list with one line of data per point:
#   POINT3D_ID, X, Y, Z, R, G, B, ERROR, TRACK[] as (IMAGE_ID, POINT2D_IDX)
# Number of points: 369, mean track length: 4.6042817679558015
1031 -0.39973673368706081 -0.95829115758517514 19.828904729783147 93 71 57 0.70044581992251687 6 1606 3 1072 4 1773
927 0.11519931246328356 -8.500956466582906 16.925879373131046 163 162 167 0.86237982569212646 14 1267 6 1297 7 1710
1075 2.3408487343339077 -0.28363256824925143 19.408990836293988 101 70 50 1.6731460587816875 17 955 6 1729 2 2656 5 601 5 602
1234 5.033515662922956 1.3088721256049372 17.435425562724205 96 63 44 0.90453674856543742 14 1856 6 2094 16 628 17 601 3 1261 13 957
1751 8.8410480248152652 -4.8023406414505745 17.02747394714596 154 140 124 1.7775883691377328 16 1070 3 1966 9 1204
932 -0.40154123773237316 -8.1376857838810572 17.039094010578232 201 198 228 1.0767739707096953 16 1842 17 1712 6 1312 9 1668 3 1857 4 1519 5 1042
934 -0.0063747696051958264 -8.1960357875262932 17.196307014633341 25 22 51 1.1405888721265292 14 1277 16 1843 17 1714 6 1315 3 1861 13 2145 9 1664
3127 10.075921296493565 0.86223983611247479 18.102260324333567 81 55 40 1.1164506845346722 14 901 16 1426 9 1440
1588 4.9051982510015177 -0.082848573928525085 19.148302986096265 61 35 22 1.0480496861425523 14 3088 3 1144 13 840
935 -0.42090113076652219 -8.0987323331411307 17.046101325647918 19 17 41 0.97608753767094403 14 1282 16 1847 17 1717 6 1316 13 1644 9 1670 5 1047
3286 8.0783680479487803 0.68923216555107081 18.730534018778119 95 70 50 0.94412605286909101 6 752 9 2246 3 1194
938 -0.66282082246694873 -8.0550707582840868 17.032851371031853 178 175 207 1.698039697301281 14 3668 16 1851 17 1721 6 1319 3 1745 17 1720 13 2149 4 1525 2 2234 7 1722 8 2445 4 1524 11 4234 12 2470
1083 3.7707282538027656 -0.14575759958094159 19.233286007686512 63 37 20 0.92590758001769835 16 1300 6 1750 3 1140 7 2133 5 608
1242 2.4463593622557731 1.8272614339772832 16.542891032890552 107 75 54 1.1523695000158529 14 3925 16 1587 17 1537 6 2114 9 2055
939 0.27288878531408928 -8.2435809383183489 17.334055731555654 85 80 110 1.5959752577650888 17 2257 6 1321 14 2335 13 2147
3640 4.9065663900759882 2.9933758195896507 11.319442494523368 185 179 155 0.36348602557173737 1 1160 4 729 2 1255 7 1148 10 677
1596 2.6196172516287546 0.15833105544455855 18.789691088222643 65 39 24 1.6124487461742383 6 1247 17 1224 3 1171 4 1905 7 2319 5 627 5 629
943 -0.065066967528939493 -8.1188550075418728 17.288428775395488 194 191 218 1.4193731971946941 16 1853 17 2270 6 1325 14 1292 3 1746 13 2163 2 3154 8 2446 5 1059
1542 -1.2591185116118635 3.3038920391707371 14.409844689994065 149 122 106 1.0802404478266876 1 2233 3 865 4 1235 2 1373 7 605 10 1285 8 3776 15 901 12 3625
946 0.16043770901026422 -7.8081214695184622 17.435591102040984 73 71 84 1.6209550530473631 16 1040 17 2283 6 1331 14 2376 3 1881 13 2180 9 1692 14 2373
1027 -3.4546980866124621 -1.1729387918016041 20.382244138183754 100 71 53 1.7230435530739896 16 1054 6 1576 17 2607
947 -19.648420495339902 -20.032202296856077 44.730602830737325 194 193 188 0.87600046340256954 14 1271 6 1335
949 -2.2014906772496063 2.6799862079270684 15.145557811623258 102 76 61 0.62031260872607785 14 3493 6 1343 16 3358 3 2931 13 2864 7 1889
950 -6.3958534642304095 -6.5201298446142344 15.553849297556988 163 162 157 0.90183920213240376 17 2304 6 1344 16 2385 13 2192
3079 0.45007199249951307 -10.861129578907306 15.435084600819589 160 158 146 0.44542830058691263 6 1227 9 1156
1540 6.4451960689446963 -5.9762409841250808 16.698484739700692 169 133 120 2.3097647203227001 14 2431 17 274 3 854 2 1563 10 1717 9 2977
951 -6.199653398353635 -6.4647455934452678 15.653014636062172 194 194 186 1.4403018052567138 16 2390 17 3192 6 1347 13 1663 9 1732 5 1090
1550 -6.1142617333415741 2.7466199807077416 14.901804238444395 125 91 69 1.3941890225983415 1 497 3 950 4 1369 10 966 8 1471 11 1727 12 1410
954 -6.2477496114753199 -6.1918119686086319 15.898288580540056 156 155 150 0.88876036782785039 16 2398 6 1351 17 2310 13 2213
1035 4.0514195021586108 -0.87648541464193208 20.16960736178271 86 59 47 1.9698647028057295 16 1190 6 1615 14 970 13 789
955 -6.2382624834934646 -6.1281645757090635 15.947955232376168 188 187 182 0.67479981723668891 16 2402 17 1735 6 1352 13 2219
3592 -6.7476085868028486 2.3465200085935503 15.773846359710301 83 186 218 1.3246108424065928 1 462 4 473 2 698
3586 -9.1139397838798306 -2.5626547167116294 15.735761224750416 13 19 31 0.90699399985609042 1 631 4 453 8 1234 12 498
3777 4.7649037884079499 3.0882941698339392 11.141675975066322 119 113 91 0.98523006468474816 1 2162 4 1300 2 2153
1548 -6.3497427283507459 2.7863325804967944 14.99209969229055 66 81 88 1.052700055249304 1 1154 3 944 10 1297 7 1218 15 1119
959 8.193385475566636 -5.8507691693080197 16.645776994423166 159 126 116 1.877707047202821 14 369 16 315 6 1374 17 1782
1622 3.8957097810119499 1.5257784927544746 16.92415867775545 106 74 50 1.7838562432452179 14 817 3 1298 13 526 7 2301 10 2510 15 1667
961 0.84821716591357887 -6.4809774798702122 18.766777754322419 55 77 40 0.59675509269889304 16 2432 17 2350 6 1377 13 2263 15 1405
2343 -0.057480133072958108 -1.591419685783426 21.042248320899699 58 36 22 0.97335630082089042 14 1073 13 1068 16 1099 17 1867 9 1946
1107 2.2879563752044967 0.35078500038897076 18.544202827489588 55 31 19 0.97957410967602654 14 3239 16 3439 17 1934 6 1815 3 2484 2 3221
962 7.6646367980691084 -5.5833073830951152 16.151425032138679 114 84 74 0.9585645817593984 14 408 16 876 6 1379 17 1792
963 0.68906165609221426 -6.4491830590435733 18.770708982444219 143 162 133 0.93506023540405114 14 1315 16 1027 17 1755 6 1380 3 1923 13 1674 9 1738 4 1574 2 2270 10 1739 8 2477 15 1408 5 1117
965 -7.8226664769049892 -5.2455137231103794 15.876444645380706 128 127 122 0.87397311646453824 1 2484 6 1382 4 1588 7 1319 8 2496 11 2878 12 2518
3159 -8.8214524193054249 -0.093219618361956733 16.123165667759064 163 161 170 1.3929870186632216 1 1920 9 1614 4 863 8 4027 11 2316 12 2734
1620 4.2906319069769339 1.469688857965783 17.074066077533718 98 70 48 1.8069979802354139 14 822 3 1291 4 944 2 1801 4 942 15 1016 5 453
1317 -1.5889892570647048 1.5377165029669093 16.264127654144037 144 145 139 1.9133657002320046 14 4148 16 2264 6 2270 4 1738 3 3099 2 2990 1 2194 7 1496 15 997 11 3308 12 2831 5 1310
967 1.1828131947415943 2.7841629143239524 15.133185811683218 99 72 53 1.1845661328914223 1 1087 14 3560 6 1384 3 2916 2 2053
1630 2.0687343189726533 1.6729393650158357 16.802759466528403 81 49 25 0.97520380714518962 17 662 3 1329 14 791 16 688 9 499 7 1562 15 961 5 721
969 0.58126514142826202 -6.3989928049642835 18.755427253441031 30 45 24 0.75196504323348889 14 1320 17 1760 6 1388 3 1927 13 1678 5 1126
1115 1.173058133841457 0.40780624925281878 18.312637287121625 85 54 34 0.98577770010011057 17 1944 6 1830 3 2506
970 0.90550607393530769 -6.427962150372478 18.887080748845278 155 173 146 0.78136008705583937 14 1322 16 2441 17 1762 6 1389 3 1931 13 1681 9 1742 4 1577 7 1756 10 1742 5 1125
2344 -5.098496411186054 -1.0011456324318941 20.132519054533166 135 136 130 1.2799624801484955 14 1045 16 1077 17 1063 13 1070
971 0.97230071445279509 -6.4415431854062497 18.924115965819727 147 165 138 0.84026625947771938 14 1321 16 2442 17 1763 6 1390 3 1929 13 2283 9 1741 10 1743
3369 -7.0337151184066267 1.3277735113055322 16.547628306054534 79 63 54 1.7235054330631869 6 2371 9 2787 3 3098 2 3047 5 1315
3672 7.6331275256400293 -0.63851347776831635 19.874342482013848 107 65 66 0.91805496720590196 3 1081 4 830 10 1459 5 375
973 -2.22388472401044 -5.9548791125468803 17.822054164465126 207 179 172 1.0660120075541497 14 1335 16 1122 17 1770 6 1393 3 1940 13 1675 9 1769 4 1584 10 1755 15 1888 5 1148
2339 5.4563909814302871 -1.3159138869140894 20.475777363804738 84 61 47 1.1985390799749598 16 1110 17 1050 13 1051 14 1431 9 1647
3666 6.3142368954446582 -1.0950719292693383 20.077046224637815 116 79 71 0.9010846758729073 4 812 7 1092 5 555
6444 11.693871755452825 8.6160104506189725 25.714086347518855 39 25 22 0.72568523246859507 8 3280 11 2097
974 -1.9682432224077786 -5.9976945978380831 17.91619264057563 57 21 17 0.98427485678897353 14 1334 16 1117 17 1768 6 1394 9 1765 4 1583 10 1752 5 1144
1325 -1.4670574671872421 2.6381260553754928 15.275426214026044 86 53 34 0.47238294454495433 14 3454 6 2295 3 3402
975 -1.6077828624965167 -6.0283246864908699 17.979310296882485 101 39 22 0.64123891977497294 14 1333 16 1069 17 1769 6 1395 13 1677 9 1762 5 1140
1702 -8.0278872087491635 -2.5812446402345439 16.532856927721276 30 30 29 0.69207967185058628 1 1753 3 1815 2 2382
977 -1.8734849561791578 -5.9864745392006657 17.95806274861263 191 153 144 1.1117635274969428 14 1336 16 1008 17 1775 6 1397 3 1941 13 2275 9 1766 4 1585 2 2283 7 1765 10 1754 15 1418 5 1146
2359 3.3584358278481674 -0.61100731026216781 19.955106070914177 70 43 26 0.58083091947022458 14 1797 16 1226 13 1109 17 2842
6448 -9.019744282075667 0.85667821335504457 15.518062251462998 96 80 96 2.1649643583862273 4 558 11 2115 12 2978 12 2979
1187 3.7733137009189197 1.4564845798672912 17.134771561452155 87 59 38 0.55895931707011892 14 1892 6 1994
978 -1.3288286655268791 -5.9292675933388503 18.282093092551559 122 77 53 1.98455300294166 17 2396 6 1403 16 2471 14 3737 16 2470 13 1686 4 1590
979 0.30253087782184018 -5.9542442903147981 18.916166568478697 83 95 65 0.65677611780579048 14 2478 6 1404 5 1150
6443 8.6701608612178802 -3.9853923752431482 16.338981481424749 0 0 0 0.81546202380511312 2 346 10 1410 17 284
981 0.39900202490339304 -5.9136635390307566 19.090170581021901 84 96 71 1.7260134372971656 1 1700 6 1408 13 2321 9 712 4 2688
982 -1.6385497920141616 -5.5784218637826495 18.437025549140738 109 72 55 1.5907321194375477 14 2489 16 2489 3 1152 13 2320 9 1776 4 1602 1 1703 11 2877
2356 3.4410441333030728 -1.1145875856665337 20.614099393214335 59 37 24 0.55885882964884381 14 1451 16 2686 17 1005 13 1105
3239 3.9075191026788123 -0.7184097419025367 20.056155935463181 66 39 21 0.82436867866982988 14 1515 16 1207 9 2023 10 1909
1333 6.7830672636354885 -2.9979342101485549 19.434566224119596 91 71 62 1.8647521316756079 1 632 6 2323 3 2034 3 3340 4 2697 7 1327 8 2528 15 1440 11 2135 12 1918
1342 3.2055741157431155 0.24892251862435982 18.703778224180081 65 39 24 0.94553154835822018 14 3203 6 2348 17 1917
984 0.48393049082727241 -5.8230972579783407 19.125474722079936 155 154 142 0.72947401087855934 14 1347 17 2446 6 1416 13 714 8 2495
1195 2.2084368025118972 1.5262065784943286 16.960917261363928 86 55 35 0.49676213518286216 17 1445 6 2016 16 1517 3 1309 13 954
2360 3.639005610671477 -0.6275216159046888 19.925699593614851 97 69 48 1.2419269731319382 16 1227 13 1111 14 1531 9 2046 17 1105
987 -1.5489197368390957 2.7226015471163638 14.96432302641872 122 89 65 0.63549586693477067 14 3571 6 1421 16 1791
3385 11.35719042180679 5.8730439909477701 23.090579400810384 46 34 26 1.2344361731218709 3 1591 9 2877
989 2.4089348952548346 -1.5376578931507516 21.634202767336618 109 78 58 0.9678866891493132 14 1412 3 1330
2355 -0.39393829947918074 -0.85304744855166903 19.510236517898743 87 72 56 1.3385473580168075 14 1506 16 1187 17 1081 13 1098 9 2100
3746 5.8505765267189416 2.9869533485788988 11.546958272863955 172 165 147 0.76109894743987827 1 1885 4 1225 2 2082 7 1856 10 1109
990 -3.6585793116566099 -3.8261583527298928 18.843339796833224 112 109 100 0.46889972999460428 14 2501 6 1435 3 1981
1341 2.0534985465750917 0.16126466329601727 18.624358761113562 107 75 54 1.8309253129848007 14 3164 6 2347 16 3474 3 2442 13 1791
991 -7.9160820568404047 -3.1646965371128033 16.143600655476043 134 133 128 1.8390205995635611 1 1721 6 1436 3 841 9 1865 4 2691 7 748 12 2542
1654 0.11259903961661316 2.4355892126012346 15.642245000463445 80 50 26 0.51360237805068043 6 508 14 658 16 800 3 1458 17 329 9 633 4 1063 2 1992 7 1088 15 1041
993 -1.3184562459606228 2.7673778055973446 15.064649532123287 110 75 55 1.4866300524699338 14 2268 6 1444 16 1790 13 1582
994 -7.8058176338115368 -2.9109417173302665 16.01215733475712 144 144 142 1.4596197365614108 1 1623 6 1448 3 1789 9 754 4 1453 2 564 7 751 8 2540 11 2921
997 5.5445905494985075 -3.0267249965145173 17.333560570435655 101 82 68 0.79045577814412715 17 1814 6 1462 9 1789
1039 2.6701832570165598 -0.84924483169594378 20.238106017202949 95 69 54 0.83760513316099616 14 1494 6 1625 17 2742 3 1077 13 1034 2 2477 9 1291
1652 2.6394770809923451 2.53220296439738 15.683559896010591 44 28 15 1.5507011258878698 6 510 2 1904 4 1068 10 1023 16 3465 15 1011 11 3367
999 -7.8646763565668607 -2.6589346241820389 16.13137665529732 135 137 136 1.5152866622605063 1 628 6 1470 3 1806 4 1650 4 227 7 298 15 276
1000 6.8439039604111978 -2.2009081005222617 18.881581473496951 160 116 117 1.4450735567299091 14 1081 16 2555 17 881 6 1491 16 330 14 1386 13 1009 9 1828 4 1479 2 2328 10 1792 11 2903
1001 2.805464642236581 -2.5294276543867764 22.133296885293582 144 136 127 1.7302640979559096 1 1777 6 1492 7 756 8 4012 11 2945 12 1187 5 352
1147 2.7996164561265209 0.94404357327393418 17.753393829462624 70 39 21 0.043726378813411515 17 1332 6 1893 4 1972
1002 3.4399257150902725 -2.6111856057458347 22.619358485378818 82 60 47 0.61225625454002286 16 1000 17 1832 6 1493 5 1191
1003 2.3198245539902476 -2.4230471593687724 22.18667507074964 56 39 29 0.83524122879828688 16 1041 17 2483 6 1496 13 1734 11 2951 5 881
1005 2.654961378644042 -2.2732369165567468 22.533956490748174 57 35 22 1.394110767214507 14 1377 17 873 6 1501 16 1104 9 1256
3698 2.1201519101345907 -2.4575018352389062 22.417228739248571 122 114 103 1.4866279967672866 3 1827 14 1095 4 1015 2 1646 7 1827 15 1142 17 864
1047 8.0346052506674539 -0.61685457025246271 19.052995066630523 40 30 21 2.4168331076683507 14 2915 6 1644 17 1155 17 3175
2950 -7.995848242584235 -0.81205795104178824 16.897637517426929 87 106 142 0.6054663355003258 6 230 9 287 2 546 7 343 8 1199 15 569 11 3077 12 2015
1660 -5.7165723045912111 2.2925369849184793 15.731475284630818 125 90 60 2.2230295482373208 16 1671 3 1478 17 1606 11 4089
1007 0.63076668507226419 -2.1230186802516218 21.887778267651747 161 154 145 1.1053941321600385 14 2548 17 2496 6 1504 3 2094 13 1746 13 2412 9 2989 2 3133 10 2665 5 1224
1606 6.4383504364959636 1.0227341184203309 17.260846554446207 110 78 53 2.3245509867634708 16 606 17 580 3 1221 13 426 10 1857
1009 0.75484571494872788 -1.9071003289101074 21.362650874785196 84 61 47 1.0412703087424673 17 1689 6 1510
1091 3.8971698925083738 -0.037042236099955161 19.091378668375516 58 36 23 0.88575094463317683 16 1315 17 1203 6 1766 14 3100 13 1773 2 2681
1010 1.1146010680596252 -1.8515998377429987 21.300144987334338 56 32 20 1.0206656228684712 14 1401 6 1512 16 1063 3 2109
1011 0.82106749041319427 -1.8278824748483797 21.392775664456398 79 57 44 0.41102407922065809 17 1860 6 1515
1013 2.5932130138376217 -1.5844918315389729 21.224199927690027 112 81 60 1.1153013855140583 14 4505 6 1529 3 811 13 760 16 948 11 2189
1014 10.147829219963329 -1.4986154522864479 21.299588240367648 145 140 128 1.1516595797980345 14 2617 16 950 6 1532 17 2663 3 1044
3143 -8.0745509264436901 -0.88787629534794754 16.729780857080129 144 163 195 1.1022602180503216 1 659 9 1485 2 1719 7 788 8 2197 7 310 15 268 15 726 11 928 12 2011
1604 -7.9444916754359003 0.31895360572973547 15.154507948274263 67 109 157 1.2132433221288681 1 805 6 1221 3 1216 9 935 4 886 2 1826 7 1447
1015 14.839335291090233 -1.9394255321020673 28.332584591126306 77 73 64 0.47642748039445937 14 1389 16 2567 17 1866 6 1536 9 1821
1614 4.7401341940811275 1.2022803937059152 17.341035297697275 94 63 41 1.5105574064649587 16 614 3 1256 9 1539
1099 2.33799224416954 0.084033927493762137 18.908456536923957 113 80 61 1.8178801850257933 14 1658 16 1325 6 1786 16 2995 14 4559 3 2420 7 2320 5 975
1018 -2.9264411870364322 -1.3481968084975693 20.615669267121064 64 45 28 0.69730522015865881 6 1552 9 1359 15 1566
1019 -0.18594335764712025 -1.3318954644997176 20.801228482028993 97 68 52 1.0569039521949621 14 1425 6 1553 16 2606 3 2160
3656 -4.8719475935275911 2.9548754056637803 14.716612705154366 87 58 40 0.84740269737714979 3 472 4 770
1021 -0.16403165214100987 -1.2383983327652652 20.754021080239699 110 77 58 1.2405021681299881 16 951 6 1566 14 1064 3 1368 13 764 9 1343
1022 -1.8064608640007898 1.4342806747846686 16.286646574408458 37 31 22 0.47845271606012069 16 2231 17 2240 6 1567 14 4188 3 3137 13 1983
1612 8.3837913941371571 1.2736865595444327 17.384634101106524 102 79 66 1.4387953493466923 6 1260 14 846 17 347 3 1247 9 1505 11 3033 5 429
1023 -0.29024859292397082 -1.2174493175682075 20.574413445272867 108 77 57 1.231630154619916 14 983 6 1570 3 2171 9 1347 4 1750 2 2468
1968 3.363825291224257 1.7641840452293678 16.692494576750992 64 35 11 1.2209902336826444 17 683 3 3121 16 3031 13 539 9 2638 15 1703
1025 6.2948304882772268 -1.0828272965669197 20.30351199673807 80 47 38 1.5504355941441748 14 2730 16 1178 17 2722 6 1574 3 2158 13 2802 4 1746 5 1022
1972 1.7941450575840523 1.6266246349394233 16.878947769128946 91 61 35 0.69360478972224404 14 1927 3 3149 9 2637
1029 -8.1105401068723708 -0.91711120961558079 16.668505016484158 171 191 226 0.45863458634668486 1 1827 6 1593 3 2263 9 2378 15 1613
1976 6.2754879013123386 1.7290230804498108 16.868987965593387 72 45 28 0.56086637228419267 17 805 3 3182 9 1602
1033 -4.0703570251296783 -0.94779914513139862 20.078613461288747 70 42 28 0.83385937336380589 16 2690 6 1611 14 1477 17 3462 3 3364 13 991
1980 2.9233900203344403 1.5368679417717015 17.023533593398135 114 84 58 1.1005601227152264 16 1518 3 3200 14 1901 17 1457 9 2587 8 2805 15 1351
1037 -4.4727807698234789 -0.92428337285122786 20.056411560611995 94 67 50 0.91053376000835318 6 1618 13 2484 9 2178
1920 14.21948012705645 4.9093959060063801 24.070613876414278 23 13 4 1.9979551170059189 16 781 3 2850
1924 1.4327269960641302 2.6419270359016918 15.374086177987991 77 46 26 1.3862570576181501 6 2280 14 2214 16 841 3 2867 4 2501 2 2012
1045 6.4259208687938854 -0.70852839120590971 20.008516660037621 141 93 89 1.56194480044617 14 1516 16 2809 17 1113 6 1640 13 2945 11 2191
1928 -8.210276245557667 2.2357474356163354 15.619354066147316 179 179 162 1.510506461339445 1 2478 3 2877 4 1382
1049 2.6196520399870407 -0.63150407455149637 19.788943398915325 67 41 26 1.5500992670566993 17 1093 6 1654 3 1095 17 1095 14 1535
1932 2.356463814008753 2.171139195927323 16.100285670250674 103 72 51 0.20709643625178167 14 3804 16 3197 3 2906
1053 1.275542922840597 -0.63411712184693447 19.870712945723611 93 66 49 1.0433547872819742 14 1017 17 926 6 1665 3 1098 9 682 5 386
6851 -1.0351292838629511 4.7401822360541557 10.255592553710924 102 93 88 0.36497920122965027 8 3283 11 2014 12 3211
1872 2.062934355899702 0.48575399481159903 18.340795109155135 85 60 45 1.824208994244962 6 2354 14 1710 16 1891 3 2516 17 1975 13 1215 13 2201
1057 8.0372824157537401 -0.42799365126756445 19.037443928110918 40 38 23 0.62143929631343064 14 2982 16 2911 17 3269 6 1681 3 2276 13 1790 9 1992 7 2047 15 1511
1060 -4.2661871571995915 -0.54656610711002429 19.699812619189977 108 75 56 0.5336635127232473 14 1008 16 1206 6 1690 3 1127
3782 4.8627006126417935 3.1180462529807502 11.144941325832523 113 107 83 0.57879905693061129 1 2178 4 1315 2 1219 7 1892 10 1195 8 3031
1065 -8.0835821862436301 -0.48171925283524863 17.014938730127156 1 14 52 0.79318421224576263 1 1880 6 1704 3 2387 9 2458 4 1839 2 2769 7 2176 15 1672
2763 0.14654648255041489 2.0536230044587582 16.380229162178921 73 42 24 1.5989046917599365 14 3706 13 2757 16 3122 14 3694
1068 -7.5040239033789637 -0.51410980658416994 19.010683662582476 145 149 152 1.4944027402222051 14 443 17 985 6 1707
1952 -8.403812933266801 1.5694430012952365 16.320331590347092 26 24 28 1.5536299871957049 1 1372 3 3031 9 2966 15 1081
1960 1.8403302922447777 1.822760084314671 16.548473024412967 52 25 4 0.86810598672420358 14 3938 16 3037 17 3017 3 3075 9 2259 2 2970 15 1915 5 740
1081 2.3537105423337192 -0.23510019819569247 19.488666264532593 80 49 29 0.47866643976672441 16 1277 6 1739 14 3027
2032 3.5631595753984224 1.7195323094699502 16.733561011126493 71 43 21 1.247898608611171 14 4130 16 2571 17 3007 3 3458 13 1415
1089 2.4578422085749092 -0.11061315045895913 19.160083396583261 106 73 54 1.1689966038159367 14 3083 17 1184 16 2949 3 2384
1090 2.43894960292132 -0.052477101672021013 19.23271670125942 85 52 33 0.15024818969412762 14 3093 6 1765
2557 2.1213916125907604 0.44105583055500952 18.1843912389228 84 59 46 1.2924578773796944 14 3280 16 1889 13 1864 17 1972 14 3287
2036 -4.8172790823575831 0.027719901147644558 18.066488122736374 88 67 55 1.6765894271263975 17 1177 14 939 1 400 16 1314 17 494 6 348 6 1191 13 803 9 2448 4 442 4 1903 10 843 8 2233 8 2739 15 326 12 2714
1093 3.3633401317359857 -0.036630599011942482 19.170798792577575 63 35 21 0.1954360924968104 16 2973 17 3303 6 1768
1095 -4.6146517035534211 -0.076497107754753282 18.131085485695742 34 25 18 0.28551748083200434 16 2950 6 1776
3062 0.51221416432323441 2.3713748192124076 15.660433801339327 116 84 59 1.9104246031971808 1 1444 9 1048 15 1029
1096 2.6218678794476316 0.0080496311117280294 18.725130064377282 76 48 26 0.87316210809243877 16 2992 6 1778 13 1169
2555 5.243395328281153 0.1545969662821986 18.6454373375514 104 72 49 2.4863049846981515 14 3165 13 1861 14 3170 16 3409
2040 -6.9157367426959482 2.829206615078991 14.083513788192452 252 190 138 0.38082411180815368 4 36 8 52
1097 3.4751980255551915 0.068813664911953093 19.041473490228267 57 35 22 1.0296040044021133 14 3131 6 1782 17 3342 13 2160
1098 4.120873038198865 0.097493294982593598 18.975664142805634 61 33 19 0.99054587002810235 14 1659 17 1883 6 1785 13 1815 2 2689
2044 0.6712146750636081 2.0544982675628765 17.162945299684583 101 71 47 2.6386901225985167 17 3006 3 412
1103 0.50700591680614471 0.19885607846642145 17.948877441075847 30 19 10 1.3623319026126539 14 3216 17 521 6 1804 9 2366
6595 9.5692359655475272 -3.3915011878023864 17.610631691867255 57 48 41 1.9731744286246162 14 2506 15 400 17 857 3 1980 9 227
1825 0.29664962641210596 -0.41470871725859426 19.54793680360628 71 45 28 0.85648016495661516 14 1574 17 1118 3 2337 16 2841 13 2906 9 1411 10 1978 5 599
1104 0.55214154485051825 0.20462307558828699 17.964757611907213 81 62 48 1.6517474760084296 16 1344 17 1242 6 1808 14 896 13 1176 9 2351 2 2747 15 1288
1988 3.5306735634383273 1.373151115718559 17.216275651001435 100 68 47 1.575750664619056 16 1497 17 607 3 3240 9 2538 14 4614
1109 2.1222504573672651 0.35372807304426829 18.50969078247525 87 59 47 0.79877755547595741 14 1691 6 1818 3 1184
1833 7.4022117120034983 0.81937525046259096 18.140643372747231 100 74 51 1.170221480667377 16 2004 3 2353 14 3126 13 1298 17 1338 14 1756
1112 2.9455311349824203 0.38579513357820733 18.501853844157797 71 43 29 0.43769704821633937 6 1822 3 2486 13 1862 14 1693 17 1955
2507 0.79874598513474648 -6.4253214682152349 18.807341894606392 51 72 41 0.58485346895266122 14 1318 16 2438 17 1759 13 1679 5 1121
1992 2.1472073854033153 1.2368808072416857 17.766732488347333 71 42 26 2.0337077046072118 16 2124 3 3265 9 2530
1113 1.530968887464379 0.37136878887041475 18.454071448460827 103 75 54 0.70841151201514418 17 1696 6 1824 14 919 3 1188 13 856
1996 3.8974337903092318 1.139320977594831 17.486884724932231 103 72 52 0.67024961120417714 14 4370 16 1458 3 3281 17 3375 13 1311 9 2482
1117 4.0534040730033931 0.53848560358469244 18.645651278333915 108 73 51 1.9257406174914493 17 1277 6 1837 14 1717 16 1365
2338 -3.6729230326996563 -0.34075412347055201 18.430800839188194 49 45 42 1.0682750659558959 14 968 13 1048 16 531 9 1469 3 766 6 1168 4 857 5 619
7118 10.979263677907584 -0.23798594312671073 19.616373403364623 37 22 22 1.5655539177019915 2 1098 8 2609 11 2171 5 1447 9 1238 15 1503
1119 0.75830167396466619 2.0010558586921592 16.013104470010713 76 45 25 2.0804940843878765 16 3145 6 1841 17 1588 14 2060 9 2760 9 988
1120 1.0073968229563068 0.27169138523736813 10.869775434762103 101 70 50 2.2093281893325347 14 3876 6 1842
1121 0.94150467289174189 0.50582705791403848 18.252891850324158 111 82 66 0.33568127972381429 17 537 6 1846 16 1361 14 3302 13 666 9 1503 5 657
1122 0.91238740716168487 0.55416829079215701 18.295388544136859 76 48 34 0.85859588447674184 14 1722 16 1011 17 1269 13 1209 9 2424 2 2790
1125 3.4203076693065584 0.65096574310274746 18.209804981956125 78 46 25 1.4857389205653373 14 910 16 1375 17 1287 6 1855 13 1239 9 1488 2 2767
1127 3.1572299022045405 0.69823014320440935 18.111220506106051 82 49 29 0.59377914374509022 14 1201 6 1859 16 1932 17 2026 3 2241 9 2405
2966 4.8973626881081493 1.4852705757569524 17.081084764299867 75 43 20 1.2850358023935604 1 1683 9 415 6 950 17 651 16 662 4 534 2 1157 7 2259 10 833 8 2772 5 229
1128 3.0132861752846813 0.82467144138632709 18.649797161760535 112 77 57 1.2224600891090132 16 1380 17 2027 3 2057
2459 1.9498529081838514 2.0471324676496017 16.264942246886473 68 41 20 0.44643662617108543 16 2840 17 1605 13 1457
1944 3.7528153659317649 0.57175467751984432 18.249588335289438 75 45 21 1.2021495637220732 17 544 3 3002 16 1913 14 3327 13 1235 4 1943
1129 2.7388260534243734 0.71469548189280596 17.826859021042349 114 79 58 1.2551605859702151 17 1290 6 1862 16 1948 3 2104 13 1909
1130 7.1945906704906379 0.87168504190296425 18.098227653015215 102 74 53 0.97101926091085244 16 2018 17 1053 6 1864 14 2852 3 2112 13 1309
1948 4.3353527079348098 2.1696135477500524 16.153916070956164 43 21 10 2.4161168532857609 14 3854 16 3209 3 3015 13 239 17 316 7 1622 4 2607 9 953 15 970 11 3211 10 1620 5 211
1133 10.231715952245567 0.91731138767426368 18.007847442330796 97 78 63 1.3443727815355992 14 2531 6 1867 16 1437 3 2311 9 2258
1135 7.0706175786590242 0.9271205939910464 18.101966222403753 86 55 34 1.8449775407451443 16 2045 17 2122 6 1873 14 2544 3 2073 13 2051 9 2341 14 1770 16 1416
6627 7.7613479042104752 -0.66249891596916866 19.290104285188292 16 12 9 1.9391630708396295 16 284 1 664 13 136 4 426 7 2031 10 523 8 2598 5 1498 9 454
1136 -6.0883988522335253 0.72423445561585309 17.286500305735998 38 23 11 1.3967376866477097 3 3284 9 3072 11 3342 4 1969
2016 2.13778537866783 -0.56225433048621809 19.911908357106888 69 43 26 0.7721062140465661 14 1547 3 3366 5 1469
1137 6.613191114529851 0.94117621540379282 17.887707416082172 81 50 30 0.35425616223528883 14 4473 16 1428 6 1878 17 1357 13 1010 9 2375
1138 2.3110925305383563 0.87916733193222363 17.800442593529688 106 73 55 0.28029386163446168 16 992 17 1312 6 1881 13 1084
2541 1.713521113754805 0.34873256675335756 18.53700936042798 106 78 57 0.53340965903256554 14 3238 17 1928 13 1827
2020 -8.4132568064993212 -0.079018430097294048 17.636905732671682 42 64 111 1.0897728844761876 1 1939 3 3381 4 1898 7 1437 15 967
1141 2.3957613366509802 0.89503547580602072 17.794750375338019 72 40 25 0.68974214403922196 17 2062 6 1884 16 2003 3 1217 2 2811
1143 1.8958064156618812 0.90231064795676741 17.770884020406118 125 89 68 0.31858497336724589 17 1315 6 1886 13 1921 5 665
3046 3.7634942046277406 2.1277239421723815 16.141823318917929 98 71 60 1.1825985279441977 3 1379 14 720 10 2396 15 975 5 288
2024 -6.0070335375277546 2.0192684436806267 15.890252946134042 89 58 37 1.2269461059142999 16 1607 17 3010 3 3415 13 2087
1145 -8.0065419697985938 0.71676535987585355 17.296271032338883 130 118 127 1.2373258894909505 1 939 6 1891 3 3271 9 923 4 1971 2 579 7 834
6645 9.1808681465595914 -6.3128719448764157 18.032794342725598 0 0 0 0.66214857899231827 3 1759 15 142
1146 3.8137586551137406 1.4062366662854915 25.927740015076541 75 47 26 1.7096830498865916 17 450 6 1892
2028 1.777819148415027 1.4619188399402643 17.009693123753145 69 41 27 0.74961418663055568 17 2513 3 3433 14 4225
1149 1.7671711512097588 0.96814842280838642 17.685177279045298 78 46 31 1.3197821257327791 14 4449 16 2026 6 1899 2 2842 7 2230
1151 1.1240877470900867 0.91664476461783595 17.099955266758919 31 18 9 2.7309315114980643 17 2087 6 1905
1809 15.340878957673517 -0.57127567808891877 27.044185664865683 36 21 14 0.036663207058149752 14 1058 9 1271
1152 -7.746521243418341 0.8285217442407159 17.084140556250883 56 49 61 0.85742234589562849 1 1986 9 2652 3 3251 11 2465
6416 -8.6402901736964743 2.4507417007252674 15.190698912087813 42 34 34 1.0332439599295375 4 1087 11 1803 12 2239 8 3795
1155 6.0747620111224618 1.1034484335918731 17.679218775902477 74 41 22 1.8630785556837535 14 4406 16 2122 6 1912 3 3305 13 2611 9 3048 17 2177 16 2134 5 1247
1813 10.865655308813166 -0.36194523780476184 19.828375784727339 88 74 63 1.8321971421902012 6 1150 17 3293 3 2278 14 4538 16 2924 15 1216 5 535 4 1837
1156 9.0734582376813524 1.2942878382773715 18.972299656111037 77 54 38 1.9867345466141129 17 2548 6 1920 16 3592 3 3437
1157 2.2969826372228086 1.1272146030286445 17.580892190021373 65 37 23 1.0056140331393462 14 1822 6 1925 16 1444 13 1260 9 2514
1158 5.6616335100300654 1.1544214820578007 17.393102021791591 97 64 45 1.4951809257082764 14 4350 6 1926 17 2196 13 2641
1817 7.7773597132490142 -0.35155251444990576 19.083888671528683 179 181 184 1.422695047711656 16 2937 3 2295 13 1798 4 1835 2 2463 10 1884 16 2919 14 3001 5 1464
1160 2.1706952756229039 1.1445010833330556 17.409675429838586 67 39 23 0.37792985435586629 14 4361 6 1929 3 3269 13 1953
1164 3.600860577403763 1.2338786631949734 17.346030336957867 82 51 30 1.798380406210589 14 4320 6 1935 3 1263 14 1848 16 616 17 1387 13 2907 10 2699
1165 -7.5405205433706746 0.9785246583492111 17.000903230913682 22 13 8 0.91653165489646615 1 2011 6 1936 3 1289 13 1183 9 956
2322 4.6570274881316838 -0.82538382596302928 20.117434900129869 67 40 24 0.8942747091689105 16 2759 17 971 13 982 14 2819
6943 6.6199083381266624 -2.5180910610553195 20.854345231914486 0 0 0 2.5619066772716597 9 132 13 272
1166 1.8204341356494891 1.2306745366081895 17.361585018818833 94 65 49 0.24431713486609388 16 2151 6 1939 17 2164
1889 7.0998318413771218 2.8630112218823456 18.584339309575814 47 44 40 1.1113927983195881 17 3126 3 2711
1171 5.794470667456399 1.3705620058459285 17.609245213035724 84 50 25 2.1909863315528577 17 2452 6 1952 13 1383
1172 3.8241908678084093 1.3855934646830128 17.512081554537481 97 66 45 0.6553958465587848 14 1867 16 2189 17 598 10 247
6426 -0.72375018056632356 4.112907836950888 10.072022327470258 161 156 136 0.23101324410872037 8 1855 11 1888
1173 3.0011257255646271 1.3104641796024075 17.267637377593147 62 36 21 0.32518729820296111 16 1485 6 1957 3 3245
1897 0.48739647853983009 2.2436230462898665 15.966008325654728 77 49 26 0.50037912440386567 14 3845 17 1635 3 2744
1176 2.9644512948935877 1.336295642878444 17.222286534089974 111 83 61 0.81101539498338637 14 838 17 1396 6 1966 13 930 7 2263 10 2526
1177 2.8478729512373038 1.3265872433940151 17.142516333436031 67 39 17 0.23432776311733394 14 4273 6 1969 9 2547
1179 4.4007449060402388 1.3783278104727059 17.344273318688401 59 31 10 1.7902832220873823 1 2004 6 1973 9 1578 15 1634 5 689
2408 7.2729467050714485 0.76718172277118835 18.197970378554874 75 47 26 1.3730459322247472 14 1748 13 1281 17 1329 16 1395
1901 -7.5203940839141019 -2.9517211722144747 16.214797130718186 178 180 177 1.1894937973665369 1 1732 6 2319 3 2761 9 1881 4 1633
1180 2.8862461170686418 1.3425083676033249 17.11808777045259 117 89 67 1.0910022765708427 17 1402 6 1974 14 4264 3 3238 9 2549
1181 4.2723483527047827 1.3733361218138702 17.164229449115712 60 31 10 0.28434384073736035 14 4261 6 1975 17 1425
2402 -6.3161847210301048 1.819263204820931 16.138617093909648 139 103 81 0.99779937254936946 6 2158 17 649 13 1267 16 703
1182 -19.318964421108586 3.2614155052314495 45.443993518647311 183 186 177 0.6273769045919344 14 2953 6 1977
1841 -7.8344218041671976 -0.46340994691949189 19.699891773303023 69 66 65 2.1673096788828512 1 1908 17 3454 3 2388 16 2777 4 1868 4 1876
1184 3.8250678116057002 1.436045232554622 17.124028997918089 86 59 41 0.44139092060682644 14 1890 6 1984 3 3223
2004 1.091817246055385 0.82341405834479353 17.150244856987083 82 65 48 1.7807274444254304 14 887 16 2014 3 3315 17 1321 13 1244 2 1769 8 2017 15 325 11 2252
1189 -7.0356321889984041 1.2098245018038598 16.541446164856854 191 181 179 1.4126245280914702 1 2044 6 2000 4 2026 7 1648 15 1046 5 1495 13 1870
1849 3.7237439487269013 0.092215220203031217 18.895950297585639 83 60 46 1.957177544889773 14 2063 16 3127 3 2417 14 3401 17 3362 13 1191
1192 3.4807683095671687 1.4656495478143479 17.022544175876323 79 48 28 0.8141595026315338 17 2917 6 2004 3 3214 13 3140
2523 6.5585151650049918 -0.31716493978460714 19.481677784727957 73 43 25 0.43490004701802992 14 3000 16 2912 17 3248 13 1761
2008 0.73964606171146619 -6.5389319034509485 18.929622748593665 62 83 52 1.765709699407612 1 1689 16 3557 13 2261 3 3331 11 2858
1193 2.1578413258857343 1.446518039081796 16.733312755113133 105 74 54 2.4680246401598538 16 657 6 2008 14 819 17 631 3 3204 2 2908
2012 15.370652415880878 -2.3597569902989921 28.096814105096588 65 61 50 2.1486289605817448 17 1856 3 3349 9 727 5 862
1197 -1.7551302711304901 1.3851199499093005 16.325965523145484 39 20 10 0.43240574047383001 14 1912 16 2216 6 2019 17 2213 3 3161 13 1270 9 2335
2354 9.6555729622731867 -2.2551674397836217 22.478809298525281 42 26 18 1.1394879339823043 17 1021 13 1097 14 621 16 2309
1793 3.8688487050822506 -0.96975602857178533 20.386161233636546 85 62 44 1.0214717903667596 14 1468 17 1027 3 2184 13 1038 5 522
1200 -1.7075455072721071 1.3968016010182311 16.324035885200775 33 24 19 0.44836834060291142 14 3676 16 2219 6 2022 17 3116 3 3154 13 1968 9 2654 2 2963 5 1285
1203 3.6732177378839799 1.6177426785284104 17.043713135403568 103 71 51 1.6603058609541774 16 2275 6 2029 3 3184 9 1617
1797 3.4572866450317554 -0.89183626221726542 20.589986139163919 87 64 46 2.0557294890607478 14 1489 17 1072 3 2200 16 974 14 1474 9 1335 9 1339 5 1403
1204 -1.8615878500592131 1.4153107163507339 16.25679341258969 25 12 6 0.70731775872288793 14 1923 16 1512 17 1413 6 2030 3 3138 13 1280 9 2669 10 2411 5 1291
6458 17.58961452724412 -2.0195648221238724 28.274136080100984 0 0 0 0.2777711407950495 9 1812 15 1459
1205 -1.6873676176179626 1.4244266423056353 16.283209627948974 138 138 130 0.51180124667148119 14 1924 16 1513 17 1417 6 2032 3 3141 13 1287 9 2666 7 1583 5 1289
1206 -1.5066615432191364 1.4451078789209721 16.313937244175285 22 22 20 1.0440920361377934 14 4663 6 2034 15 1748
2823 3.6192825394812154 -0.1557696711187477 19.495394742359611 100 71 50 1.4827357317843564 17 3255 13 3033 14 3048
1801 6.3838571004217135 -0.75507965135553001 20.218759357245045 69 34 18 1.6281863740586684 16 1042 3 2205
1208 -1.4475833281154162 -6.3946740273030125 17.760580907306796 167 153 140 2.3489096355941816 1 1681 14 1126 6 2036 16 2417 3 1912 9 1198 9 1746 3 1910 7 1749 15 1403 5 1108
1211 2.3055737313829741 1.6503425514077812 16.873332521690706 112 78 53 1.6375523087513273 17 1492 6 2044 16 1543 3 3145 9 2630
2312 5.4389471678464574 1.1753816811442463 17.400545526834069 57 29 8 0.89951574443822135 14 859 17 588 13 942 5 675
1805 6.2554553723632953 -0.6692240896017394 20.319459601935669 73 44 26 1.8278069113506787 14 2864 3 2229 16 2808 9 1974
1212 -1.7244043239698896 1.4822296609373566 16.215547243494189 39 40 34 0.41199244730901974 14 4163 6 2045 17 3425 13 2014 9 2681
2306 -5.4550598736703844 1.9860768642333888 15.997084884257299 107 78 62 0.76938268944603516 3 1422 17 674 13 923
1214 5.1400032471360761 1.25465826800088 17.441189551356555 67 33 13 1.3253260579655006 16 621 6 2051 3 3450 9 1537 4 1993
1217 6.1139040193646679 1.7484452302899767 16.795763315327186 68 41 24 1.3593655750041767 14 1233 17 1546 6 2059 3 1320 13 1482
3623 5.7613780316619696 3.166164298604099 11.341970748629294 130 122 109 0.71788347320943213 1 1201 4 695 8 3017
6480 7.1600388616295536 3.5934995637768865 12.768161963508019 107 101 103 1.3313863620727904 8 1081 11 2397 12 459
1219 -1.7731612341851735 1.5234507800544794 16.134857562864731 21 22 16 1.1299966364210068 14 3714 16 2272 17 1454 6 2061 13 2036 2 3210 7 1614 5 498 10 783
1221 -5.2590779783239787 0.18993574722927875 17.856439427145194 106 82 65 0.9455296198322044 1 1948 6 2065 3 875 7 1435 10 1561 14 3231 17 3304
1222 2.3645006823005978 1.6967671800524204 16.695967993708145 103 72 54 1.3765321524932546 14 4139 16 3301 6 2066 17 3407 9 2646 15 1808 7 1563
3620 4.6232330940171495 3.1388351602737674 11.073970029574744 172 166 142 0.77632546885681419 1 1215 4 689 2 1304 7 962 10 627 8 3058
1225 -1.8646957591110032 1.5733601671435549 16.134412290925411 21 22 17 0.52531048859967 17 2937 6 2078 16 3537 13 2956
1227 -1.6402740526236033 1.5754002093134094 16.064426955036684 23 24 19 0.51449965257192265 14 769 16 1550 17 1476 6 2080 3 3081 13 670 9 2719 5 784
2392 5.4018109303941539 0.17251426984405938 18.805613726507048 72 40 19 0.52663104950412987 14 3418 17 1252 13 1214
2601 2.9822903593451597 -1.0421777938862591 20.685404765629123 64 38 21 0.96636765991588414 16 2705 13 2066 17 1691 5 1392
1228 -2.1394177220446173 1.5500444075192497 16.008617526139862 31 33 28 1.3600831217584459 14 4095 6 2082 13 2050 9 2732 9 3040 2 3010 5 501 5 1333
2594 7.3562348750661419 0.88721744078089537 18.121863603200453 105 74 46 0.57675785556979509 16 3599 13 2039 14 2838 17 2110
1229 1.7387460437250286 1.7329967383553662 16.644303992732709 85 53 32 0.5601448357838823 14 1962 6 2085 3 1342 9 921 4 2678 5 1296
2386 -7.4035821435294711 1.0596186999428252 16.904373595854445 24 20 23 1.8214289653227809 6 1270 13 1196 9 2960 2 1871 11 1060 12 1051
3619 5.8235419304963774 2.9034104471996747 11.638046169874976 169 163 141 0.31613890416820284 1 1120 4 665 10 1087
1230 -2.051443194544234 1.4987126503324664 16.172055901274184 27 28 22 0.47264751780380965 14 1941 6 2086 16 2263 17 2911 3 3106 13 2012 9 2699 5 1308
1235 3.1859442604850075 1.7954222760871268 16.664472983339213 69 38 17 1.1652721345625106 14 4085 17 1532 6 2095 16 3033 17 1531 13 1429 9 2888
1957 2.2343314970672314 1.9152330066181122 16.605760037657785 110 82 61 1.4328895037303344 16 3077 17 3041 3 3064 9 2322
1236 1.8264801565105142 1.6428795488358174 15.392967210847106 56 29 8 1.6452619453253199 14 3673 16 1614 6 2100 17 1578 3 1351
6490 -1.4278860605588959 3.9767920962466787 22.446830368610211 101 74 60 1.956424151767804 14 2005 11 2619
1237 3.5849129874062871 1.8294810540217858 16.660456161891965 80 49 28 0.59446091165293746 16 1588 6 2102 17 695 13 549
1238 3.7934747956818931 1.7866478254903118 16.503868067732416 84 53 32 1.7229445578229485 16 3062 6 2103 3 1339 17 3036 14 520 10 1368
2983 2.7185537064002796 1.7945123880096734 16.61775247547531 80 49 24 1.1210488541789512 9 506 3 3093 6 777 7 1571 2 2946 10 2440 8 2825 5 490
3636 5.9329736846062602 3.1097732062294603 11.544328313151267 138 131 113 0.46476746014445736 1 1180 4 716 2 689 10 1140
1243 1.2978006865096847 1.8469790513880193 16.640141125079516 106 73 54 1.634335100572553 14 1987 16 1578 6 2116 17 1525 13 2718
2617 2.9042514244700155 0.07535205062388059 19.003253092466828 59 32 15 1.7562671427348095 14 3133 17 3344 13 2154 17 3334 16 3479
1244 -5.2978733333512427 1.5943998238823285 16.049127724345627 38 29 22 1.4002007220039345 6 2117 3 3045 9 2825
2610 0.11779870980625513 -8.5073556342611116 17.078767907739465 107 105 122 1.5160939608402415 3 1847 13 2118 14 2313 17 2246 8 2440
1245 -1.5269760359694973 1.4715863914099754 16.361642732532026 26 26 24 1.1627092290868122 14 4180 17 2573 6 2119 16 2234
2466 -2.1108714535505326 2.3039098126265278 15.150657594215545 14 16 13 2.3089029205707874 14 4020 13 1485
3635 5.50332553182756 3.08213374248154 11.373166278598031 166 159 140 0.75407906191110952 1 1176 4 714 2 2125 7 1091 10 672
1246 1.6751515479818913 1.5777628782530455 16.73300173677055 103 74 55 2.0470286255326808 16 677 6 2120 14 802 3 1322 9 497 9 1638 6 747 2 3202 7 1557 11 3196
1905 -0.72926260638508511 2.2641263251813735 15.845068699203653 63 36 18 0.32116088952649174 14 4594 3 2774 13 2800
1248 2.4310578173803776 1.8702481790127716 16.451738686770415 120 88 63 1.3821778493079142 14 2002 16 1593 6 2124 3 1357 3 3070 4 2654 7 1600 5 746 13 1438
6512 -2.5921246440375842 3.1119705178795334 15.944648350409192 113 81 60 1.6897904969369248 8 3829 11 2967
1251 1.0600101941027167 2.0033368390740844 16.805657578361334 86 53 34 0.26860221229702413 16 3069 17 3023 11 3309
1909 0.82118999724122532 2.3796237598114254 15.681761970190765 111 81 57 1.5452382128340225 6 861 14 3909 3 2789
1252 2.518005895433832 1.9111011967501963 16.383783817671912 75 47 25 0.87131524816142314 14 3636 6 2130 16 223 3 3058 13 223 9 2656 10 1615 5 119
1253 3.2388539420961227 1.9339551236661985 16.404880923259761 83 52 32 0.61775045806319129 14 3642 16 3109 17 1579 6 2131 3 3059 13 1460 9 2223
1254 2.8009621527846424 1.9512994056770367 16.398131238608467 93 61 36 1.6143168256440261 14 2015 17 703 6 2132 16 3112 3 3054 3 3057 13 559 2 2979
2935 1.7938036240887754 1.8853294414633044 16.348003244738091 103 73 49 1.0829786122178529 3 243 6 162 9 203 4 217 2 322
1913 -8.2927081627874362 2.0556018419413831 15.820497059802966 121 117 104 1.8151784857614324 1 1450 3 2816 4 2578 2 687 15 1095
1256 0.76331312174953359 1.8959799558214789 16.234610274412198 104 71 52 1.7230499804872501 14 3646 17 1547 6 2137
2424 3.3959555417088731 1.2590602668388766 17.184757620727996 109 77 52 0.38168510775750752 14 1857 16 1482 13 1336 9 2525
1917 6.6778866443103393 -1.3449937431433738 20.861824890155894 104 74 64 1.2260637326952482 1 1807 3 2838 13 344
1260 3.4937682355846782 1.9938106410784024 16.313350040880003 73 42 24 0.5889623337936295 14 2034 16 1623 6 2145
1261 5.0017977549771961 2.0257434322690404 16.339048949853705 45 23 10 1.5695258327788215 1 853 6 2147 13 1532 10 2445 17 405 2 2948
2418 3.5883002414324285 1.1998091574331637 17.486454567184275 106 78 57 1.7203611261393712 14 1835 13 1321 17 2169 16 2146 9 2497 10 2713
1857 1.6843200438018531 0.20376503126087842 18.339685666292766 88 58 34 1.4304508160979963 17 1233 3 2458
1264 2.6019970062091446 0.0034808893560335521 18.982288699685565 108 77 56 1.0413723170627303 14 1648 6 2151 17 1201 16 871 13 828 5 968 9 2226
1265 0.75584251214104836 1.9831722515025003 16.321872426954865 105 72 53 1.3692125808807196 14 2029 16 1800 6 2153 17 3367 3 3030
1267 2.679917582266115 2.0396021895839693 16.260650402599381 86 54 33 0.244873317660699 17 1614 6 2155 13 1483
1268 0.79734686456171178 2.0115140810085124 16.238606421657089 102 74 53 0.038259767063956604 6 2159 13 1439
6522 0.77789185723302867 3.8886850044413235 10.225628636729539 187 181 157 0.15466825644697649 8 1704 11 3022 12 3626
1269 2.1733878876063351 2.057007457459497 16.159867894279408 96 61 41 1.5641587854864518 14 3738 16 3165 17 1699 6 2166 3 414 7 1513
1270 1.7920273038161698 2.0678350655018112 16.130684718766528 77 49 27 0.7496764044914922 17 1615 6 2168 3 3010 13 1468
2887 1.0124579781593701 -6.8889914664136249 18.578085435343223 91 100 71 1.5400589960372904 13 2229 10 313 8 403
1865 2.2728461888711156 0.58469334901783543 18.267067413482806 107 76 52 0.54743094080707189 16 1907 17 1278 3 2491 13 867 9 2400
1272 2.4872001491387925 2.1007052816984149 16.165721589764633 107 75 52 1.8014564072535535 17 1625 6 2171 14 2069 16 1649 9 2724
1275 -6.3652291632508033 1.8799571108554367 16.092162199959841 103 67 42 0.36239136563651003 6 2175 3 2728 13 1982
2376 0.6305157380762364 0.20029011356766618 18.74192738887006 67 41 26 0.65469333318362199 14 1675 17 3354 13 1166 9 2324 17 511
1278 1.9444592089553929 2.2905317336354103 15.925848333501893 106 75 56 1.6054599121374677 16 3245 17 760 6 2179 3 1416 13 1534 9 2800 4 2571
1279 1.6723201385070567 2.1365446656746485 16.134190765464279 120 89 68 0.90792114263210988 14 2083 16 2868 6 2183 17 3111 3 2997 13 568 9 2755 4 2597 7 1652 15 1760 5 295
5665 7.1102573288920681 3.3791838911803498 12.747923616522627 98 93 87 0.77106761036167204 7 939 8 1102
2243 7.2382824293503951 -5.3752525294936149 15.417499614091973 173 147 134 1.4000789738294737 3 1915 13 704 2 2252
1712 -0.21052110766470147 -8.1288346446291566 17.180802662951709 193 192 207 1.2790670110504478 14 1285 16 1850 17 1719 3 1866 13 1647 9 1671
1281 -0.055907306930836377 2.104845599444233 15.996637334634974 74 41 24 1.3201541211590957 14 3780 16 3170 17 3097 6 2197 9 1009
2237 5.9953117265235658 1.7945321679847994 16.834958014924748 68 40 26 1.6146390994799644 16 1584 13 676 14 1960 17 1553 2 2897 9 2584
1282 2.1535201413496941 2.1767817156231883 16.076064356447421 113 78 58 1.1827958748450038 14 2090 17 3120 6 2198
1284 0.35566011647572254 2.1468338368552615 16.022095697608538 102 73 57 0.67885204490523243 14 2089 6 2202 16 3183 3 3423
1716 -0.13610069372485825 -8.1276440071321758 17.238959330397378 62 60 81 1.3782369258925156 14 1288 16 2356 17 2266 3 1871 13 2158 5 1052
1285 1.4809647782409545 2.1789825206295275 16.007226275051707 107 76 55 0.35544658190293593 14 710 16 757 6 2203 3 1400 13 580 9 2865
1287 3.2888704970394271 2.2163138960007469 15.981783956527526 101 69 54 0.75736806875148444 14 1209 16 1687 6 2205 17 759 9 1150
2742 4.6329433877719115 1.3630627998225033 17.17920512347736 86 52 27 0.28500135185923664 16 2205 13 2669 17 2893 14 4623
2235 5.8312774585077864 0.91877571948385672 17.887015596553592 93 61 38 0.71410167950583625 14 1156 17 801 13 669
1288 0.55730078849676035 2.1649182957304567 15.990465641242746 81 53 41 0.57127443868545424 17 1627 6 2206 14 3812 16 3473 3 3444
1720 -0.063673173056503565 -7.6168194444977138 17.491757780488129 81 78 95 1.8554847959252481 16 2378 3 1890 14 2386 17 2297 13 2202 5 1077 6 1339
1289 1.3262616375469889 2.2112704577745053 16.050879259069045 112 84 62 1.4455686500713534 17 745 6 2207 14 3826 16 3196 13 1506
1290 -5.6691937417359117 2.0080657976354956 15.908975519458895 108 79 61 0.93304456387143164 16 1606 6 2208 14 1149 3 1434 13 1337 9 659 12 3309
1724 2.1965716614189388 0.87653651104967734 17.816573233840209 85 52 28 0.22527720537404636 17 2059 3 1901 13 2234
1293 -0.36272682557144637 2.2123559544682703 16.05084619887829 78 45 26 1.1392312194628496 14 2096 6 2214 3 2742
6275 1.264564792774248 4.0870857094063311 10.114165392444511 172 166 151 0.30655909502662521 8 547 11 516 12 642
1664 -1.1727936877500313 2.5649826323583889 15.39386570613364 89 57 34 0.73944003148577742 6 529 14 630 3 1498 4 1367
1297 1.0126478023466654 2.3056897601209441 16.088212809055797 112 83 62 2.3154176643244493 14 3860 6 2222 9 2814
1298 0.40769730939339416 2.2739071476211627 15.893483128427849 123 88 68 0.55989125689374619 17 1644 6 2225 16 1686 3 2764 13 1503
1301 0.973208751825272 2.2937734450740956 15.886409805042234 90 59 38 0.43581798148423201 14 3887 16 3237 6 2229 3 2763
1303 -0.30647949604112978 2.2825081534231706 15.907727825620949 65 36 20 0.78129433548089255 16 3225 17 3122 6 2232 13 1477
2694 -4.5029114680672029 -0.94155775380885942 20.307804268810305 82 55 38 2.5584046504450972 14 2768 16 2681 13 2473 17 2655 9 2161
2187 3.7639291851334802 1.3766952860213575 17.211436277723372 111 80 54 0.59167498033617694 16 636 17 612 13 488 5 445
1304 0.088572520639174507 2.3178277093688373 15.798079588326296 85 54 34 0.35433076392042434 14 3922 16 3246 6 2233 3 2782
1305 -0.51041951717049439 2.3225389651337833 15.793817735409768 59 28 10 0.93924666119377864 14 691 16 776 6 2236 17 754 3 1443 9 1057 2 1921 12 3764
6293 -0.45963271818584839 4.1142386302727401 10.014055875646864 190 183 165 0.28708672372887523 8 716 11 663 12 1488
1306 -0.69677139098282304 2.2632823873288812 15.501101126027029 101 65 49 1.7668484385014078 16 3250 6 2237 14 3950
1676 7.8982266932107992 6.8570559019288302 28.104450736105704 39 45 45 1.3766351279634363 14 2094 3 1578 9 1054 16 3266 17 1666
1309 -0.20789300620122964 2.390385246190462 15.666947955001721 120 89 68 0.48164978311449286 17 1664 6 2248 16 3264 14 2149 13 1518 9 2882
1310 2.4958680814456975 1.5985220348221905 16.817413824449471 116 84 63 1.2324649708720621 14 1926 17 656 6 2252 10 2465 7 1550
1311 -0.2269358471984616 2.4057504650341861 15.518205843790774 128 92 68 1.7929448908168679 14 2159 6 2253 14 2162
1312 -0.00014635533467822147 2.4527799214624744 15.557892785990868 80 48 27 0.24030026495302331 14 2164 6 2254 13 606 4 2538
